ply
format ascii 1.0
element vertex 1947
property float x
property float y
property float z
end_header
0.08432 0.01946 2.27027
0.08757 0.01946 2.27027
0.09096 0.01949 2.27411
0.09421 0.01949 2.27411
0.09730 0.01946 2.27027
0.10054 0.01946 2.27027
0.10378 0.01946 2.27027
0.10703 0.01946 2.27027
0.11027 0.01946 2.27027
0.11351 0.01946 2.27027
0.11676 0.01946 2.27027
0.12000 0.01946 2.27027
0.12324 0.01946 2.27027
0.12649 0.01946 2.27027
0.12973 0.01946 2.27027
0.13320 0.01949 2.27411
0.13645 0.01949 2.27411
0.13970 0.01949 2.27411
0.14294 0.01949 2.27411
0.14619 0.01949 2.27411
0.14944 0.01949 2.27411
0.15269 0.01949 2.27411
0.15594 0.01949 2.27411
0.15946 0.01953 2.27797
0.16271 0.01953 2.27797
0.16625 0.01956 2.28183
0.17009 0.01963 2.28961
0.17365 0.01966 2.29352
0.17723 0.01969 2.29744
0.18113 0.01976 2.30532
0.18474 0.01979 2.30928
0.18836 0.01983 2.31325
0.19167 0.01983 2.31325
0.19531 0.01986 2.31724
0.19862 0.01986 2.31724
0.20228 0.01990 2.32124
0.20560 0.01990 2.32124
0.20927 0.01993 2.32526
0.21333 0.02000 2.33333
0.21667 0.02000 2.33333
0.22077 0.02007 2.34146
0.22411 0.02007 2.34146
0.22785 0.02010 2.34555
0.23161 0.02014 2.34965
0.23579 0.02021 2.35789
0.23958 0.02025 2.36204
0.24381 0.02032 2.37037
0.24763 0.02035 2.37456
0.25102 0.02035 2.37456
0.25487 0.02039 2.37876
0.25827 0.02039 2.37876
0.26166 0.02039 2.37876
0.26459 0.02035 2.37456
0.26517 0.02014 2.34965
0.26667 0.02000 2.33333
0.27000 0.02000 2.33333
0.38566 0.02488 2.90281
0.24161 0.01542 1.79920
0.24385 0.01540 1.79679
0.24675 0.01542 1.79920
0.24932 0.01542 1.79920
0.25189 0.01542 1.79920
0.25446 0.01542 1.79920
0.25703 0.01542 1.79920
0.26100 0.01550 1.80888
0.26358 0.01550 1.80888
0.26616 0.01550 1.80888
0.26767 0.01544 1.80161
0.27024 0.01544 1.80161
0.27209 0.01540 1.79679
0.27465 0.01540 1.79679
0.27685 0.01538 1.79439
0.27904 0.01536 1.79200
0.28160 0.01536 1.79200
0.28530 0.01542 1.79920
0.29099 0.01559 1.81867
0.29398 0.01561 1.82114
0.29699 0.01563 1.82361
0.29959 0.01563 1.82361
0.30220 0.01563 1.82361
0.30522 0.01565 1.82609
0.30951 0.01574 1.83607
0.35644 0.01797 2.09672
0.35944 0.01797 2.09672
0.36243 0.01797 2.09672
0.36543 0.01797 2.09672
0.36900 0.01800 2.10000
0.37200 0.01800 2.10000
0.37500 0.01800 2.10000
0.37800 0.01800 2.10000
0.38100 0.01800 2.10000
0.38400 0.01800 2.10000
-0.45176 0.01647 1.64706
-0.44941 0.01647 1.64706
-0.44706 0.01647 1.64706
-0.44471 0.01647 1.64706
-0.44235 0.01647 1.64706
-0.44000 0.01647 1.64706
-0.43765 0.01647 1.64706
-0.43529 0.01647 1.64706
-0.43400 0.01651 1.65111
-0.43218 0.01653 1.65314
-0.42982 0.01653 1.65314
-0.42693 0.01651 1.65111
-0.42457 0.01651 1.65111
-0.59875 0.02341 2.34146
-0.59540 0.02341 2.34146
-0.57894 0.02290 2.28961
-0.54591 0.02171 2.17124
-0.54281 0.02171 2.17124
-0.53971 0.02171 2.17124
-0.53402 0.02161 2.16077
-0.53008 0.02157 2.15730
-0.52447 0.02147 2.14696
-0.52141 0.02147 2.14696
-0.51505 0.02133 2.13333
-0.50717 0.02113 2.11321
-0.50257 0.02107 2.10658
-0.49722 0.02097 2.09672
-0.49269 0.02090 2.09020
-0.48668 0.02077 2.07728
-0.48148 0.02068 2.06769
-0.47706 0.02061 2.06135
-0.47411 0.02061 2.06135
-0.47117 0.02061 2.06135
-0.46822 0.02061 2.06135
-0.46599 0.02065 2.06452
-0.39706 0.01829 1.82857
-0.39445 0.01829 1.82857
-0.39130 0.01826 1.82609
-0.38870 0.01826 1.82609
-0.38609 0.01826 1.82609
-0.38348 0.01826 1.82609
-0.38087 0.01826 1.82609
-0.37826 0.01826 1.82609
-0.37514 0.01824 1.82361
-0.37203 0.01821 1.82114
-0.36843 0.01816 1.81622
-0.36584 0.01816 1.81622
-0.36324 0.01816 1.81622
-0.36065 0.01816 1.81622
-0.35854 0.01819 1.81867
-0.35594 0.01819 1.81867
-0.35334 0.01819 1.81867
-0.35074 0.01819 1.81867
-0.34815 0.01819 1.81867
-0.34555 0.01819 1.81867
-0.34341 0.01821 1.82114
-0.34128 0.01824 1.82361
-0.33867 0.01824 1.82361
-0.33652 0.01826 1.82609
-0.33391 0.01826 1.82609
-0.33176 0.01829 1.82857
-0.32914 0.01829 1.82857
-0.32653 0.01829 1.82857
-0.32793 0.01851 1.85124
-0.32574 0.01854 1.85379
-0.32488 0.01864 1.86408
-0.35415 0.02049 2.04878
-0.35176 0.02052 2.05191
-0.34882 0.02052 2.05191
-0.34695 0.02058 2.05819
-0.34991 0.02093 2.09346
-0.34800 0.02100 2.10000
-0.34500 0.02100 2.10000
-0.34254 0.02103 2.10329
-0.34006 0.02107 2.10658
-0.33705 0.02107 2.10658
-0.41544 0.02620 2.61988
-0.41170 0.02620 2.61988
-0.39265 0.02522 2.52158
-0.38543 0.02498 2.49814
-0.37974 0.02484 2.48429
-0.37619 0.02484 2.48429
-0.37196 0.02480 2.47970
-0.36909 0.02484 2.48429
-0.36555 0.02484 2.48429
-0.36200 0.02484 2.48429
-0.35845 0.02484 2.48429
-0.35490 0.02484 2.48429
-0.35596 0.02517 2.51685
-0.39282 0.02806 2.80585
-0.34489 0.02489 2.48889
-0.34133 0.02489 2.48889
-0.33778 0.02489 2.48889
-0.18684 0.01721 1.72087
-0.18414 0.01719 1.71867
-0.18169 0.01719 1.71867
-0.17923 0.01719 1.71867
-0.17655 0.01716 1.71648
-0.17388 0.01714 1.71429
-0.17143 0.01714 1.71429
-0.16898 0.01714 1.71429
-0.16653 0.01714 1.71429
-0.16408 0.01714 1.71429
-0.16163 0.01714 1.71429
-0.15918 0.01714 1.71429
-0.15673 0.01714 1.71429
-0.15429 0.01714 1.71429
-0.15184 0.01714 1.71429
-0.14939 0.01714 1.71429
-0.14694 0.01714 1.71429
-0.14449 0.01714 1.71429
-0.14204 0.01714 1.71429
-0.13959 0.01714 1.71429
-0.13714 0.01714 1.71429
-0.13469 0.01714 1.71429
-0.18286 0.02370 2.37037
-0.17947 0.02370 2.37037
-0.17608 0.02370 2.37037
-0.17239 0.02366 2.36620
-0.16872 0.02362 2.36204
-0.16505 0.02358 2.35789
-0.16168 0.02358 2.35789
-0.15804 0.02354 2.35377
-0.15441 0.02350 2.34965
-0.15052 0.02341 2.34146
-0.14692 0.02337 2.33739
-0.14333 0.02333 2.33333
-0.14000 0.02333 2.33333
-0.13643 0.02329 2.32929
-0.13310 0.02329 2.32929
-0.12977 0.02329 2.32929
-0.12623 0.02325 2.32526
-0.12269 0.02321 2.32124
-0.11938 0.02321 2.32124
-0.11606 0.02321 2.32124
-0.11255 0.02317 2.31724
-0.10924 0.02317 2.31724
-0.10593 0.02317 2.31724
-0.10244 0.02313 2.31325
-0.09914 0.02313 2.31325
-0.09583 0.02313 2.31325
-0.09253 0.02313 2.31325
-0.08923 0.02313 2.31325
-0.08592 0.02313 2.31325
-0.08262 0.02313 2.31325
-0.07931 0.02313 2.31325
-0.07601 0.02313 2.31325
-0.07245 0.02305 2.30532
-0.06916 0.02305 2.30532
-0.06553 0.02294 2.29352
-0.06215 0.02290 2.28961
-0.05888 0.02290 2.28961
-0.05542 0.02282 2.28183
-0.05207 0.02278 2.27797
-0.04873 0.02274 2.27411
-0.04548 0.02274 2.27411
-0.04223 0.02274 2.27411
-0.03892 0.02270 2.27027
-0.03568 0.02270 2.27027
-0.03243 0.02270 2.27027
-0.02919 0.02270 2.27027
-0.02595 0.02270 2.27027
-0.02270 0.02270 2.27027
-0.01946 0.02270 2.27027
-0.01622 0.02270 2.27027
-0.01297 0.02270 2.27027
-0.00973 0.02270 2.27027
-0.00649 0.02270 2.27027
-0.00324 0.02270 2.27027
0.00000 0.02270 2.27027
0.00324 0.02270 2.27027
0.00649 0.02270 2.27027
0.00973 0.02270 2.27027
0.01297 0.02270 2.27027
0.01622 0.02270 2.27027
0.01943 0.02266 2.26644
0.02266 0.02266 2.26644
0.02590 0.02266 2.26644
0.02919 0.02270 2.27027
0.03243 0.02270 2.27027
0.03568 0.02270 2.27027
0.03892 0.02270 2.27027
0.04216 0.02270 2.27027
0.04541 0.02270 2.27027
0.04865 0.02270 2.27027
0.05189 0.02270 2.27027
0.05514 0.02270 2.27027
0.05838 0.02270 2.27027
0.06162 0.02270 2.27027
0.06486 0.02270 2.27027
0.06811 0.02270 2.27027
0.07135 0.02270 2.27027
0.07459 0.02270 2.27027
0.07784 0.02270 2.27027
0.08108 0.02270 2.27027
0.08432 0.02270 2.27027
0.08757 0.02270 2.27027
0.09081 0.02270 2.27027
0.09405 0.02270 2.27027
0.09730 0.02270 2.27027
0.10054 0.02270 2.27027
0.10378 0.02270 2.27027
0.10703 0.02270 2.27027
0.11027 0.02270 2.27027
0.11351 0.02270 2.27027
0.11676 0.02270 2.27027
0.12000 0.02270 2.27027
0.12324 0.02270 2.27027
0.12649 0.02270 2.27027
0.12973 0.02270 2.27027
0.13297 0.02270 2.27027
0.13622 0.02270 2.27027
0.13946 0.02270 2.27027
0.14270 0.02270 2.27027
0.14595 0.02270 2.27027
0.14919 0.02270 2.27027
0.15269 0.02274 2.27411
0.15594 0.02274 2.27411
0.15946 0.02278 2.27797
0.16271 0.02278 2.27797
0.16625 0.02282 2.28183
0.16980 0.02286 2.28571
0.17336 0.02290 2.28961
0.17693 0.02294 2.29352
0.18113 0.02305 2.30532
0.18474 0.02309 2.30928
0.18836 0.02313 2.31325
0.19167 0.02313 2.31325
0.19531 0.02317 2.31724
0.19862 0.02317 2.31724
0.20228 0.02321 2.32124
0.20560 0.02321 2.32124
0.20927 0.02325 2.32526
0.21333 0.02333 2.33333
0.21667 0.02333 2.33333
0.22077 0.02341 2.34146
0.22450 0.02346 2.34555
0.22785 0.02346 2.34555
0.23161 0.02350 2.34965
0.23579 0.02358 2.35789
0.24000 0.02366 2.36620
0.24424 0.02375 2.37456
0.24763 0.02375 2.37456
0.25102 0.02375 2.37456
0.25487 0.02379 2.37876
0.25827 0.02379 2.37876
0.26166 0.02379 2.37876
0.26459 0.02375 2.37456
0.26517 0.02350 2.34965
0.26806 0.02346 2.34555
0.38234 0.02909 2.90909
0.38566 0.02903 2.90281
0.24161 0.01799 1.79920
0.24418 0.01799 1.79920
0.24675 0.01799 1.79920
0.24932 0.01799 1.79920
0.25223 0.01802 1.80161
0.25514 0.01804 1.80403
0.25841 0.01809 1.80888
0.26135 0.01811 1.81132
0.26465 0.01816 1.81622
0.26652 0.01811 1.81132
0.26911 0.01811 1.81132
0.27024 0.01802 1.80161
0.27282 0.01802 1.80161
0.27502 0.01799 1.79920
0.27759 0.01799 1.79920
0.28016 0.01799 1.79920
0.28273 0.01799 1.79920
0.28684 0.01809 1.80888
0.29138 0.01821 1.82114
0.29438 0.01824 1.82361
0.29699 0.01824 1.82361
0.29959 0.01824 1.82361
0.30220 0.01824 1.82361
0.30522 0.01826 1.82609
0.30909 0.01834 1.83356
0.35644 0.02097 2.09672
0.35944 0.02097 2.09672
0.36243 0.02097 2.09672
0.36543 0.02097 2.09672
0.36842 0.02097 2.09672
0.37200 0.02100 2.10000
0.37500 0.02100 2.10000
0.37800 0.02100 2.10000
0.38100 0.02100 2.10000
0.38400 0.02100 2.10000
-0.45176 0.01882 1.64706
-0.44941 0.01882 1.64706
-0.44706 0.01882 1.64706
-0.44471 0.01882 1.64706
-0.44235 0.01882 1.64706
-0.44000 0.01882 1.64706
-0.43765 0.01882 1.64706
-0.43529 0.01882 1.64706
-0.43400 0.01887 1.65111
-0.43218 0.01889 1.65314
-0.42982 0.01889 1.65314
-0.42693 0.01887 1.65111
-0.42457 0.01887 1.65111
-0.42273 0.01889 1.65314
-0.57730 0.02595 2.27027
-0.57405 0.02595 2.27027
-0.54591 0.02481 2.17124
-0.54281 0.02481 2.17124
-0.53971 0.02481 2.17124
-0.53402 0.02469 2.16077
-0.53008 0.02465 2.15730
-0.52447 0.02454 2.14696
-0.52141 0.02454 2.14696
-0.51505 0.02438 2.13333
-0.50717 0.02415 2.11321
-0.50336 0.02411 2.10989
-0.49800 0.02400 2.10000
-0.49269 0.02389 2.09020
-0.48743 0.02378 2.08050
-0.48148 0.02363 2.06769
-0.47706 0.02356 2.06135
-0.47411 0.02356 2.06135
-0.47117 0.02356 2.06135
-0.46822 0.02356 2.06135
-0.46671 0.02363 2.06769
-0.39706 0.02090 1.82857
-0.39445 0.02090 1.82857
-0.39130 0.02087 1.82609
-0.38870 0.02087 1.82609
-0.38609 0.02087 1.82609
-0.38348 0.02087 1.82609
-0.38087 0.02087 1.82609
-0.37826 0.02087 1.82609
-0.37514 0.02084 1.82361
-0.37203 0.02081 1.82114
-0.36843 0.02076 1.81622
-0.36584 0.02076 1.81622
-0.36324 0.02076 1.81622
-0.36065 0.02076 1.81622
-0.35805 0.02076 1.81622
-0.35594 0.02078 1.81867
-0.35334 0.02078 1.81867
-0.35074 0.02078 1.81867
-0.34815 0.02078 1.81867
-0.34602 0.02081 1.82114
-0.34341 0.02081 1.82114
-0.34128 0.02084 1.82361
-0.33913 0.02087 1.82609
-0.33652 0.02087 1.82609
-0.33391 0.02087 1.82609
-0.33176 0.02090 1.82857
-0.32914 0.02090 1.82857
-0.32698 0.02093 1.83106
-0.32839 0.02119 1.85379
-0.32664 0.02124 1.85892
-0.32533 0.02133 1.86667
-0.35307 0.02334 2.04255
-0.35122 0.02341 2.04878
-0.34829 0.02341 2.04878
-0.34589 0.02345 2.05191
-0.34882 0.02385 2.08696
-0.34746 0.02396 2.09672
-0.34500 0.02400 2.10000
-0.34254 0.02404 2.10329
-0.34006 0.02408 2.10658
-0.33705 0.02408 2.10658
-0.41544 0.02994 2.61988
-0.41170 0.02994 2.61988
-0.38900 0.02855 2.49814
-0.38329 0.02839 2.48429
-0.37904 0.02834 2.47970
-0.37481 0.02829 2.47514
-0.37127 0.02829 2.47514
-0.36841 0.02834 2.47970
-0.36487 0.02834 2.47970
-0.36133 0.02834 2.47970
-0.35845 0.02839 2.48429
-0.35490 0.02839 2.48429
-0.35135 0.02839 2.48429
-0.34780 0.02839 2.48429
-0.09610 0.00793 0.69350
-0.09511 0.00793 0.69350
-0.33715 0.02839 2.48429
-0.33422 0.02844 2.48889
-0.18684 0.01967 1.72087
-0.18414 0.01964 1.71867
-0.18169 0.01964 1.71867
-0.17900 0.01962 1.71648
-0.17633 0.01959 1.71429
-0.17388 0.01959 1.71429
-0.17143 0.01959 1.71429
-0.16898 0.01959 1.71429
-0.16653 0.01959 1.71429
-0.16408 0.01959 1.71429
-0.16163 0.01959 1.71429
-0.15918 0.01959 1.71429
-0.15673 0.01959 1.71429
-0.15429 0.01959 1.71429
-0.15184 0.01959 1.71429
-0.14939 0.01959 1.71429
-0.14694 0.01959 1.71429
-0.14449 0.01959 1.71429
-0.14204 0.01959 1.71429
-0.13959 0.01959 1.71429
-0.13714 0.01959 1.71429
-0.13469 0.01959 1.71429
-0.18189 0.02695 2.35789
-0.17853 0.02695 2.35789
-0.17516 0.02695 2.35789
-0.17149 0.02690 2.35377
-0.16813 0.02690 2.35377
-0.16476 0.02690 2.35377
-0.16112 0.02685 2.34965
-0.15776 0.02685 2.34965
-0.15387 0.02676 2.34146
-0.15026 0.02671 2.33739
-0.14667 0.02667 2.33333
-0.14308 0.02662 2.32929
-0.13976 0.02662 2.32929
-0.13619 0.02657 2.32526
-0.13287 0.02657 2.32526
-0.12955 0.02657 2.32526
-0.12601 0.02653 2.32124
-0.12269 0.02653 2.32124
-0.11917 0.02648 2.31724
-0.11586 0.02648 2.31724
-0.11255 0.02648 2.31724
-0.10924 0.02648 2.31724
-0.10575 0.02644 2.31325
-0.10244 0.02644 2.31325
-0.09914 0.02644 2.31325
-0.09567 0.02639 2.30928
-0.09237 0.02639 2.30928
-0.08923 0.02644 2.31325
-0.08592 0.02644 2.31325
-0.08262 0.02644 2.31325
-0.07931 0.02644 2.31325
-0.07588 0.02639 2.30928
-0.07245 0.02635 2.30532
-0.06904 0.02630 2.30137
-0.06542 0.02617 2.28961
-0.06215 0.02617 2.28961
-0.05878 0.02612 2.28571
-0.05542 0.02608 2.28183
-0.05207 0.02603 2.27797
-0.04873 0.02599 2.27411
-0.04548 0.02599 2.27411
-0.04216 0.02595 2.27027
-0.03892 0.02595 2.27027
-0.03568 0.02595 2.27027
-0.03243 0.02595 2.27027
-0.02919 0.02595 2.27027
-0.02595 0.02595 2.27027
-0.02270 0.02595 2.27027
-0.01946 0.02595 2.27027
-0.01622 0.02595 2.27027
-0.01297 0.02595 2.27027
-0.00973 0.02595 2.27027
-0.00649 0.02595 2.27027
-0.00324 0.02595 2.27027
0.00000 0.02595 2.27027
0.00324 0.02595 2.27027
0.00649 0.02595 2.27027
0.00973 0.02595 2.27027
0.01297 0.02595 2.27027
0.01619 0.02590 2.26644
0.01943 0.02590 2.26644
0.02266 0.02590 2.26644
0.02590 0.02590 2.26644
0.02914 0.02590 2.26644
0.03243 0.02595 2.27027
0.03568 0.02595 2.27027
0.03892 0.02595 2.27027
0.04216 0.02595 2.27027
0.04541 0.02595 2.27027
0.04865 0.02595 2.27027
0.05189 0.02595 2.27027
0.05514 0.02595 2.27027
0.05838 0.02595 2.27027
0.06162 0.02595 2.27027
0.06486 0.02595 2.27027
0.06811 0.02595 2.27027
0.07135 0.02595 2.27027
0.07459 0.02595 2.27027
0.07784 0.02595 2.27027
0.08108 0.02595 2.27027
0.08432 0.02595 2.27027
0.08757 0.02595 2.27027
0.09081 0.02595 2.27027
0.09405 0.02595 2.27027
0.09730 0.02595 2.27027
0.10054 0.02595 2.27027
0.10378 0.02595 2.27027
0.10703 0.02595 2.27027
0.11027 0.02595 2.27027
0.11351 0.02595 2.27027
0.11676 0.02595 2.27027
0.12000 0.02595 2.27027
0.12324 0.02595 2.27027
0.12649 0.02595 2.27027
0.12973 0.02595 2.27027
0.13297 0.02595 2.27027
0.13622 0.02595 2.27027
0.13946 0.02595 2.27027
0.14270 0.02595 2.27027
0.14595 0.02595 2.27027
0.14919 0.02595 2.27027
0.15243 0.02595 2.27027
0.15594 0.02599 2.27411
0.15946 0.02603 2.27797
0.16271 0.02603 2.27797
0.16597 0.02603 2.27797
0.16980 0.02612 2.28571
0.17336 0.02617 2.28961
0.17693 0.02621 2.29352
0.18051 0.02626 2.29744
0.18443 0.02635 2.30532
0.18836 0.02644 2.31325
0.19167 0.02644 2.31325
0.19531 0.02648 2.31724
0.19862 0.02648 2.31724
0.20228 0.02653 2.32124
0.20560 0.02653 2.32124
0.20927 0.02657 2.32526
0.21296 0.02662 2.32929
0.21667 0.02667 2.33333
0.22077 0.02676 2.34146
0.22411 0.02676 2.34146
0.22785 0.02681 2.34555
0.23161 0.02685 2.34965
0.23579 0.02695 2.35789
0.24000 0.02704 2.36620
0.24424 0.02714 2.37456
0.24763 0.02714 2.37456
0.25102 0.02714 2.37456
0.25487 0.02719 2.37876
0.25827 0.02719 2.37876
0.26166 0.02719 2.37876
0.26459 0.02714 2.37456
0.26517 0.02685 2.34965
0.26853 0.02685 2.34965
0.38317 0.03332 2.91540
0.38566 0.03317 2.90281
0.24161 0.02056 1.79920
0.24418 0.02056 1.79920
0.24675 0.02056 1.79920
0.24932 0.02056 1.79920
0.25256 0.02062 1.80403
0.25548 0.02065 1.80645
0.25841 0.02067 1.80888
0.26205 0.02076 1.81622
0.26465 0.02076 1.81622
0.26724 0.02076 1.81622
0.26911 0.02070 1.81132
0.27060 0.02062 1.80403
0.27282 0.02059 1.80161
0.27502 0.02056 1.79920
0.27759 0.02056 1.79920
0.28016 0.02056 1.79920
0.28273 0.02056 1.79920
0.28684 0.02067 1.80888
0.29138 0.02081 1.82114
0.29398 0.02081 1.82114
0.29699 0.02084 1.82361
0.29959 0.02084 1.82361
0.30220 0.02084 1.82361
0.30480 0.02084 1.82361
0.30909 0.02095 1.83356
0.35644 0.02396 2.09672
0.35944 0.02396 2.09672
0.36243 0.02396 2.09672
0.36543 0.02396 2.09672
0.36842 0.02396 2.09672
0.37142 0.02396 2.09672
0.37441 0.02396 2.09672
0.37800 0.02400 2.10000
0.38100 0.02400 2.10000
0.38400 0.02400 2.10000
-0.45176 0.02118 1.64706
-0.44941 0.02118 1.64706
-0.44706 0.02118 1.64706
-0.44471 0.02118 1.64706
-0.44235 0.02118 1.64706
-0.44000 0.02118 1.64706
-0.43765 0.02118 1.64706
-0.43529 0.02118 1.64706
-0.43400 0.02123 1.65111
-0.43218 0.02125 1.65314
-0.42982 0.02125 1.65314
-0.42745 0.02125 1.65314
-0.42509 0.02125 1.65314
-0.59153 0.02974 2.31325
-0.57827 0.02924 2.27411
-0.57405 0.02919 2.27027
-0.56508 0.02890 2.24749
-0.54457 0.02801 2.17828
-0.53971 0.02792 2.17124
-0.53574 0.02787 2.16774
-0.53008 0.02774 2.15730
-0.52447 0.02760 2.14696
-0.52141 0.02760 2.14696
-0.51423 0.02739 2.12995
-0.50717 0.02717 2.11321
-0.50257 0.02708 2.10658
-0.49800 0.02700 2.10000
-0.49269 0.02687 2.09020
-0.48668 0.02671 2.07728
-0.48000 0.02650 2.06135
-0.47706 0.02650 2.06135
-0.47411 0.02650 2.06135
-0.47117 0.02650 2.06135
-0.46822 0.02650 2.06135
-0.46671 0.02658 2.06769
-0.39706 0.02351 1.82857
-0.39445 0.02351 1.82857
-0.39130 0.02348 1.82609
-0.38870 0.02348 1.82609
-0.38609 0.02348 1.82609
-0.38348 0.02348 1.82609
-0.38087 0.02348 1.82609
-0.37826 0.02348 1.82609
-0.37463 0.02341 1.82114
-0.37153 0.02338 1.81867
-0.36843 0.02335 1.81622
-0.36584 0.02335 1.81622
-0.36324 0.02335 1.81622
-0.36065 0.02335 1.81622
-0.35805 0.02335 1.81622
-0.35594 0.02338 1.81867
-0.35334 0.02338 1.81867
-0.35074 0.02338 1.81867
-0.34815 0.02338 1.81867
-0.34602 0.02341 1.82114
-0.34388 0.02345 1.82361
-0.34174 0.02348 1.82609
-0.33913 0.02348 1.82609
-0.33698 0.02351 1.82857
-0.33437 0.02351 1.82857
-0.33221 0.02354 1.83106
-0.32959 0.02354 1.83106
-0.32742 0.02357 1.83356
-0.32929 0.02390 1.85892
-0.32755 0.02397 1.86408
-0.32669 0.02410 1.87448
-0.35147 0.02614 2.03328
-0.35015 0.02626 2.04255
-0.34723 0.02626 2.04255
-0.34537 0.02634 2.04878
-0.34828 0.02679 2.08372
-0.34692 0.02692 2.09346
-0.34500 0.02700 2.10000
-0.34200 0.02700 2.10000
-0.34006 0.02708 2.10658
-0.33758 0.02713 2.10989
-0.33775 0.02739 2.12995
-0.39257 0.03212 2.49814
-0.38900 0.03212 2.49814
-0.38329 0.03194 2.48429
-0.37834 0.03182 2.47514
-0.37481 0.03182 2.47514
-0.37059 0.03176 2.47059
-0.36773 0.03182 2.47514
-0.36420 0.03182 2.47514
-0.36133 0.03188 2.47970
-0.35779 0.03188 2.47970
-0.35424 0.03188 2.47970
-0.35070 0.03188 2.47970
-0.27917 0.02564 1.99407
-0.09605 0.00891 0.69314
-0.09506 0.00891 0.69314
-0.33715 0.03194 2.48429
-0.33360 0.03194 2.48429
-0.18684 0.02213 1.72087
-0.18414 0.02210 1.71867
-0.18169 0.02210 1.71867
-0.17900 0.02207 1.71648
-0.17633 0.02204 1.71429
-0.17388 0.02204 1.71429
-0.17143 0.02204 1.71429
-0.16898 0.02204 1.71429
-0.16653 0.02204 1.71429
-0.16408 0.02204 1.71429
-0.16163 0.02204 1.71429
-0.15918 0.02204 1.71429
-0.15673 0.02204 1.71429
-0.15429 0.02204 1.71429
-0.15184 0.02204 1.71429
-0.14939 0.02204 1.71429
-0.14694 0.02204 1.71429
-0.14449 0.02204 1.71429
-0.14204 0.02204 1.71429
-0.13959 0.02204 1.71429
-0.13714 0.02204 1.71429
-0.13469 0.02204 1.71429
-0.18158 0.03026 2.35377
-0.17821 0.03026 2.35377
-0.17485 0.03026 2.35377
-0.17119 0.03021 2.34965
-0.16783 0.03021 2.34965
-0.16448 0.03021 2.34965
-0.16084 0.03016 2.34555
-0.15721 0.03010 2.34146
-0.15360 0.03005 2.33739
-0.15000 0.03000 2.33333
-0.14641 0.02995 2.32929
-0.14308 0.02995 2.32929
-0.13952 0.02990 2.32526
-0.13619 0.02990 2.32526
-0.13287 0.02990 2.32526
-0.12933 0.02984 2.32124
-0.12601 0.02984 2.32124
-0.12248 0.02979 2.31724
-0.11917 0.02979 2.31724
-0.11586 0.02979 2.31724
-0.11236 0.02974 2.31325
-0.10905 0.02974 2.31325
-0.10575 0.02974 2.31325
-0.10244 0.02974 2.31325
-0.09897 0.02969 2.30928
-0.09567 0.02969 2.30928
-0.09221 0.02964 2.30532
-0.08907 0.02969 2.30928
-0.08592 0.02974 2.31325
-0.08262 0.02974 2.31325
-0.07931 0.02974 2.31325
-0.07588 0.02969 2.30928
-0.07245 0.02964 2.30532
-0.06904 0.02959 2.30137
-0.06542 0.02944 2.28961
-0.06204 0.02939 2.28571
-0.05878 0.02939 2.28571
-0.05532 0.02929 2.27797
-0.05198 0.02924 2.27411
-0.04873 0.02924 2.27411
-0.04541 0.02919 2.27027
-0.04216 0.02919 2.27027
-0.03892 0.02919 2.27027
-0.03568 0.02919 2.27027
-0.03243 0.02919 2.27027
-0.02919 0.02919 2.27027
-0.02595 0.02919 2.27027
-0.02270 0.02919 2.27027
-0.01946 0.02919 2.27027
-0.01622 0.02919 2.27027
-0.01297 0.02919 2.27027
-0.00973 0.02919 2.27027
-0.00649 0.02919 2.27027
-0.00324 0.02919 2.27027
0.00000 0.02919 2.27027
0.00324 0.02919 2.27027
0.00648 0.02914 2.26644
0.00973 0.02919 2.27027
0.01295 0.02914 2.26644
0.01619 0.02914 2.26644
0.01943 0.02914 2.26644
0.02266 0.02914 2.26644
0.02590 0.02914 2.26644
0.02914 0.02914 2.26644
0.03243 0.02919 2.27027
0.03568 0.02919 2.27027
0.03892 0.02919 2.27027
0.04216 0.02919 2.27027
0.04541 0.02919 2.27027
0.04865 0.02919 2.27027
0.05189 0.02919 2.27027
0.05514 0.02919 2.27027
0.05838 0.02919 2.27027
0.06162 0.02919 2.27027
0.06486 0.02919 2.27027
0.06811 0.02919 2.27027
0.07135 0.02919 2.27027
0.07459 0.02919 2.27027
0.07784 0.02919 2.27027
0.08108 0.02919 2.27027
0.08432 0.02919 2.27027
0.08757 0.02919 2.27027
0.09081 0.02919 2.27027
0.09405 0.02919 2.27027
0.09730 0.02919 2.27027
0.10054 0.02919 2.27027
0.10378 0.02919 2.27027
0.10703 0.02919 2.27027
0.11027 0.02919 2.27027
0.11332 0.02914 2.26644
0.11676 0.02919 2.27027
0.12000 0.02919 2.27027
0.12324 0.02919 2.27027
0.12649 0.02919 2.27027
0.12973 0.02919 2.27027
0.13297 0.02919 2.27027
0.13622 0.02919 2.27027
0.13946 0.02919 2.27027
0.14270 0.02919 2.27027
0.14595 0.02919 2.27027
0.14919 0.02919 2.27027
0.15243 0.02919 2.27027
0.15568 0.02919 2.27027
0.15919 0.02924 2.27411
0.16271 0.02929 2.27797
0.16597 0.02929 2.27797
0.16951 0.02934 2.28183
0.17306 0.02939 2.28571
0.17663 0.02944 2.28961
0.18020 0.02949 2.29352
0.18411 0.02959 2.30137
0.18836 0.02974 2.31325
0.19167 0.02974 2.31325
0.19531 0.02979 2.31724
0.19862 0.02979 2.31724
0.20193 0.02979 2.31724
0.20560 0.02984 2.32124
0.20891 0.02984 2.32124
0.21260 0.02990 2.32526
0.21667 0.03000 2.33333
0.22000 0.03000 2.33333
0.22372 0.03005 2.33739
0.22746 0.03010 2.34146
0.23120 0.03016 2.34555
0.23497 0.03021 2.34965
0.23916 0.03032 2.35789
0.24338 0.03042 2.36620
0.24763 0.03053 2.37456
0.25102 0.03053 2.37456
0.25442 0.03053 2.37456
0.25827 0.03058 2.37876
0.26120 0.03053 2.37456
0.26459 0.03053 2.37456
0.26751 0.03048 2.37037
0.38317 0.03748 2.91540
0.38566 0.03732 2.90281
0.24128 0.02310 1.79679
0.24385 0.02310 1.79679
0.24675 0.02313 1.79920
0.24932 0.02313 1.79920
0.25256 0.02319 1.80403
0.25548 0.02323 1.80645
0.25841 0.02326 1.80888
0.26205 0.02335 1.81622
0.26465 0.02335 1.81622
0.26688 0.02332 1.81377
0.26911 0.02329 1.81132
0.27024 0.02316 1.80161
0.27245 0.02313 1.79920
0.27429 0.02307 1.79439
0.27722 0.02310 1.79679
0.27979 0.02310 1.79679
0.28273 0.02313 1.79920
0.28645 0.02323 1.80645
0.29138 0.02341 1.82114
0.29398 0.02341 1.82114
0.29659 0.02341 1.82114
0.29919 0.02341 1.82114
0.30179 0.02341 1.82114
0.30480 0.02345 1.82361
0.35180 0.02683 2.08696
0.35589 0.02692 2.09346
0.35888 0.02692 2.09346
0.36187 0.02692 2.09346
0.36486 0.02692 2.09346
0.36785 0.02692 2.09346
0.37142 0.02696 2.09672
0.37441 0.02696 2.09672
0.37741 0.02696 2.09672
0.38100 0.02700 2.10000
0.38400 0.02700 2.10000
-0.45176 0.02353 1.64706
-0.44941 0.02353 1.64706
-0.44706 0.02353 1.64706
-0.44471 0.02353 1.64706
-0.44235 0.02353 1.64706
-0.44000 0.02353 1.64706
-0.43765 0.02353 1.64706
-0.43529 0.02353 1.64706
-0.43400 0.02359 1.65111
-0.43218 0.02362 1.65314
-0.42982 0.02362 1.65314
-0.42745 0.02362 1.65314
-0.59689 0.03316 2.32124
-0.59255 0.03310 2.31724
-0.58722 0.03299 2.30928
-0.57503 0.03249 2.27411
-0.57081 0.03243 2.27027
-0.56471 0.03227 2.25882
-0.55866 0.03211 2.24749
-0.53835 0.03112 2.17828
-0.53179 0.03092 2.16425
-0.52447 0.03067 2.14696
-0.51975 0.03057 2.14013
-0.51180 0.03028 2.11987
-0.50637 0.03014 2.10989
-0.50100 0.03000 2.10000
-0.49645 0.02991 2.09346
-0.49040 0.02972 2.08050
-0.48294 0.02945 2.06135
-0.47926 0.02940 2.05819
-0.47487 0.02931 2.05191
-0.47266 0.02936 2.05505
-0.46972 0.02936 2.05505
-0.46750 0.02940 2.05819
-0.46528 0.02945 2.06135
-0.39706 0.02612 1.82857
-0.39391 0.02609 1.82609
-0.39130 0.02609 1.82609
-0.38870 0.02609 1.82609
-0.38609 0.02609 1.82609
-0.38348 0.02609 1.82609
-0.38087 0.02609 1.82609
-0.37826 0.02609 1.82609
-0.37463 0.02602 1.82114
-0.37153 0.02598 1.81867
-0.36843 0.02595 1.81622
-0.36584 0.02595 1.81622
-0.36324 0.02595 1.81622
-0.36065 0.02595 1.81622
-0.35805 0.02595 1.81622
-0.35546 0.02595 1.81622
-0.35334 0.02598 1.81867
-0.35074 0.02598 1.81867
-0.34862 0.02602 1.82114
-0.34649 0.02605 1.82361
-0.34435 0.02609 1.82609
-0.34174 0.02609 1.82609
-0.33913 0.02609 1.82609
-0.33698 0.02612 1.82857
-0.33437 0.02612 1.82857
-0.33221 0.02616 1.83106
-0.32959 0.02616 1.83106
-0.32742 0.02619 1.83356
-0.33021 0.02663 1.86408
-0.32800 0.02667 1.86667
-0.32761 0.02685 1.87972
-0.35147 0.02905 2.03328
-0.34962 0.02914 2.03945
-0.34671 0.02914 2.03945
-0.34432 0.02918 2.04255
-0.34349 0.02936 2.05505
-0.34584 0.02981 2.08696
-0.34500 0.03000 2.10000
-0.34200 0.03000 2.10000
-0.34006 0.03009 2.10658
-0.33758 0.03014 2.10989
-0.33562 0.03024 2.11654
-0.39257 0.03569 2.49814
-0.38900 0.03569 2.49814
-0.38258 0.03542 2.47970
-0.37834 0.03536 2.47514
-0.37412 0.03529 2.47059
-0.37059 0.03529 2.47059
-0.36706 0.03529 2.47059
-0.36353 0.03529 2.47059
-0.36066 0.03536 2.47514
-0.35713 0.03536 2.47514
-0.35359 0.03536 2.47514
-0.35006 0.03536 2.47514
-0.27958 0.02853 1.99703
-0.27632 0.02849 1.99407
-0.18684 0.02458 1.72087
-0.18438 0.02458 1.72087
-0.18169 0.02455 1.71867
-0.17900 0.02452 1.71648
-0.17633 0.02449 1.71429
-0.17388 0.02449 1.71429
-0.17143 0.02449 1.71429
-0.16898 0.02449 1.71429
-0.16653 0.02449 1.71429
-0.16408 0.02449 1.71429
-0.16163 0.02449 1.71429
-0.15918 0.02449 1.71429
-0.15673 0.02449 1.71429
-0.15429 0.02449 1.71429
-0.15184 0.02449 1.71429
-0.14939 0.02449 1.71429
-0.14694 0.02449 1.71429
-0.14449 0.02449 1.71429
-0.14204 0.02449 1.71429
-0.13959 0.02449 1.71429
-0.13714 0.02449 1.71429
-0.13469 0.02449 1.71429
-0.18126 0.03357 2.34965
-0.17821 0.03363 2.35377
-0.17455 0.03357 2.34965
-0.17119 0.03357 2.34965
-0.16754 0.03351 2.34555
-0.16419 0.03351 2.34555
-0.16084 0.03351 2.34555
-0.15694 0.03339 2.33739
-0.15333 0.03333 2.33333
-0.14974 0.03328 2.32929
-0.14641 0.03328 2.32929
-0.14284 0.03322 2.32526
-0.13952 0.03322 2.32526
-0.13596 0.03316 2.32124
-0.13264 0.03316 2.32124
-0.12933 0.03316 2.32124
-0.12579 0.03310 2.31724
-0.12248 0.03310 2.31724
-0.11917 0.03310 2.31724
-0.11566 0.03305 2.31325
-0.11236 0.03305 2.31325
-0.10905 0.03305 2.31325
-0.10557 0.03299 2.30928
-0.10227 0.03299 2.30928
-0.09880 0.03293 2.30532
-0.09551 0.03293 2.30532
-0.09221 0.03293 2.30532
-0.08892 0.03293 2.30532
-0.08563 0.03293 2.30532
-0.08247 0.03299 2.30928
-0.07918 0.03299 2.30928
-0.07562 0.03288 2.30137
-0.07233 0.03288 2.30137
-0.06869 0.03271 2.28961
-0.06531 0.03265 2.28571
-0.06204 0.03265 2.28571
-0.05858 0.03254 2.27797
-0.05523 0.03249 2.27411
-0.05198 0.03249 2.27411
-0.04865 0.03243 2.27027
-0.04541 0.03243 2.27027
-0.04216 0.03243 2.27027
-0.03892 0.03243 2.27027
-0.03568 0.03243 2.27027
-0.03243 0.03243 2.27027
-0.02919 0.03243 2.27027
-0.02595 0.03243 2.27027
-0.02270 0.03243 2.27027
-0.01946 0.03243 2.27027
-0.01622 0.03243 2.27027
-0.01297 0.03243 2.27027
-0.00973 0.03243 2.27027
-0.00649 0.03243 2.27027
-0.00324 0.03243 2.27027
0.00000 0.03238 2.26644
0.00324 0.03238 2.26644
0.00648 0.03238 2.26644
0.00971 0.03238 2.26644
0.01295 0.03238 2.26644
0.01619 0.03238 2.26644
0.01943 0.03238 2.26644
0.02266 0.03238 2.26644
0.02590 0.03238 2.26644
0.02914 0.03238 2.26644
0.03243 0.03243 2.27027
0.03568 0.03243 2.27027
0.03892 0.03243 2.27027
0.04216 0.03243 2.27027
0.04541 0.03243 2.27027
0.04857 0.03238 2.26644
0.05180 0.03238 2.26644
0.05514 0.03243 2.27027
0.05838 0.03243 2.27027
0.06162 0.03243 2.27027
0.06486 0.03243 2.27027
0.06811 0.03243 2.27027
0.07123 0.03238 2.26644
0.07447 0.03238 2.26644
0.07784 0.03243 2.27027
0.08094 0.03238 2.26644
0.08418 0.03238 2.26644
0.08742 0.03238 2.26644
0.09081 0.03243 2.27027
0.09405 0.03243 2.27027
0.09730 0.03243 2.27027
0.10054 0.03243 2.27027
0.10378 0.03243 2.27027
0.10685 0.03238 2.26644
0.11008 0.03238 2.26644
0.11332 0.03238 2.26644
0.11656 0.03238 2.26644
0.11980 0.03238 2.26644
0.12304 0.03238 2.26644
0.12627 0.03238 2.26644
0.12951 0.03238 2.26644
0.13297 0.03243 2.27027
0.13622 0.03243 2.27027
0.13946 0.03243 2.27027
0.14270 0.03243 2.27027
0.14595 0.03243 2.27027
0.14919 0.03243 2.27027
0.15243 0.03243 2.27027
0.15568 0.03243 2.27027
0.15919 0.03249 2.27411
0.16244 0.03249 2.27411
0.16569 0.03249 2.27411
0.16922 0.03254 2.27797
0.17277 0.03260 2.28183
0.17633 0.03265 2.28571
0.17990 0.03271 2.28961
0.18348 0.03276 2.29352
0.18804 0.03299 2.30928
0.19167 0.03305 2.31325
0.19497 0.03305 2.31325
0.19862 0.03310 2.31724
0.20193 0.03310 2.31724
0.20524 0.03310 2.31724
0.20891 0.03316 2.32124
0.21223 0.03316 2.32124
0.21629 0.03328 2.32929
0.22000 0.03333 2.33333
0.22333 0.03333 2.33333
0.22667 0.03333 2.33333
0.23040 0.03339 2.33739
0.23455 0.03351 2.34555
0.23874 0.03363 2.35377
0.24295 0.03374 2.36204
0.24720 0.03386 2.37037
0.25058 0.03386 2.37037
0.25397 0.03386 2.37037
0.25781 0.03392 2.37456
0.26120 0.03392 2.37456
0.26413 0.03386 2.37037
0.26751 0.03386 2.37037
0.38317 0.04165 2.91540
0.23936 0.02574 1.80161
0.24128 0.02567 1.79679
0.24385 0.02567 1.79679
0.24675 0.02570 1.79920
0.24965 0.02574 1.80161
0.25256 0.02577 1.80403
0.25548 0.02581 1.80645
0.25911 0.02591 1.81377
0.26205 0.02595 1.81622
0.26465 0.02595 1.81622
0.26688 0.02591 1.81377
0.26911 0.02588 1.81132
0.27024 0.02574 1.80161
0.27282 0.02574 1.80161
0.27429 0.02563 1.79439
0.27722 0.02567 1.79679
0.27979 0.02567 1.79679
0.28311 0.02574 1.80161
0.28645 0.02581 1.80645
0.29138 0.02602 1.82114
0.29398 0.02602 1.82114
0.29659 0.02602 1.82114
0.29919 0.02602 1.82114
0.30179 0.02602 1.82114
0.30439 0.02602 1.82114
0.35180 0.02981 2.08696
0.35478 0.02981 2.08696
0.35776 0.02981 2.08696
0.36075 0.02981 2.08696
0.36373 0.02981 2.08696
0.36671 0.02981 2.08696
0.36969 0.02981 2.08696
0.37325 0.02986 2.09020
0.37624 0.02986 2.09020
0.37922 0.02986 2.09020
0.38400 0.03000 2.10000
-0.45176 0.02588 1.64706
-0.44941 0.02588 1.64706
-0.44706 0.02588 1.64706
-0.44471 0.02588 1.64706
-0.44235 0.02588 1.64706
-0.44000 0.02588 1.64706
-0.43765 0.02588 1.64706
-0.43529 0.02588 1.64706
-0.43347 0.02591 1.64908
-0.43165 0.02595 1.65111
-0.42982 0.02598 1.65314
-0.59814 0.03635 2.31325
-0.59689 0.03648 2.32124
-0.59153 0.03635 2.31325
-0.58621 0.03623 2.30532
-0.57698 0.03586 2.28183
-0.57178 0.03574 2.27411
-0.56661 0.03562 2.26644
-0.56337 0.03562 2.26644
-0.56013 0.03562 2.26644
-0.53265 0.03406 2.16774
-0.52364 0.03368 2.14354
-0.51564 0.03336 2.12322
-0.51019 0.03321 2.11321
-0.50479 0.03305 2.10329
-0.49944 0.03290 2.09346
-0.49337 0.03269 2.08050
-0.48589 0.03239 2.06135
-0.48147 0.03229 2.05505
-0.47780 0.03224 2.05191
-0.47415 0.03220 2.04878
-0.47194 0.03224 2.05191
-0.46972 0.03229 2.05505
-0.46679 0.03229 2.05505
-0.46528 0.03239 2.06135
-0.39706 0.02873 1.82857
-0.39391 0.02870 1.82609
-0.39130 0.02870 1.82609
-0.38870 0.02870 1.82609
-0.38609 0.02870 1.82609
-0.38348 0.02870 1.82609
-0.38087 0.02870 1.82609
-0.37775 0.02866 1.82361
-0.37463 0.02862 1.82114
-0.37153 0.02858 1.81867
-0.36843 0.02854 1.81622
-0.36534 0.02850 1.81377
-0.36324 0.02854 1.81622
-0.36065 0.02854 1.81622
-0.35805 0.02854 1.81622
-0.35546 0.02854 1.81622
-0.35334 0.02858 1.81867
-0.35074 0.02858 1.81867
-0.34862 0.02862 1.82114
-0.34649 0.02866 1.82361
-0.34435 0.02870 1.82609
-0.34174 0.02870 1.82609
-0.33959 0.02873 1.82857
-0.33698 0.02873 1.82857
-0.33437 0.02873 1.82857
-0.33221 0.02877 1.83106
-0.32959 0.02877 1.83106
-0.32742 0.02881 1.83356
-0.33021 0.02929 1.86408
-0.32800 0.02933 1.86667
-0.33038 0.02979 1.89563
-0.35147 0.03195 2.03328
-0.34962 0.03205 2.03945
-0.34671 0.03205 2.03945
-0.34537 0.03220 2.04878
-0.34349 0.03229 2.05505
-0.34584 0.03280 2.08696
-0.34446 0.03295 2.09672
-0.34200 0.03300 2.10000
-0.33953 0.03305 2.10329
-0.33705 0.03310 2.10658
-0.33562 0.03326 2.11654
-0.38543 0.03926 2.49814
-0.37765 0.03882 2.47059
-0.37412 0.03882 2.47059
-0.37059 0.03882 2.47059
-0.36706 0.03882 2.47059
-0.36286 0.03875 2.46606
-0.36000 0.03882 2.47059
-0.35582 0.03875 2.46606
-0.35229 0.03875 2.46606
-0.34877 0.03875 2.46606
-0.34462 0.03868 2.46154
-0.19076 0.02725 1.73419
-0.18756 0.02715 1.72751
-0.18438 0.02704 1.72087
-0.18169 0.02701 1.71867
-0.17923 0.02701 1.71867
-0.17655 0.02697 1.71648
-0.17410 0.02697 1.71648
-0.17143 0.02694 1.71429
-0.16898 0.02694 1.71429
-0.16653 0.02694 1.71429
-0.16408 0.02694 1.71429
-0.16163 0.02694 1.71429
-0.15918 0.02694 1.71429
-0.15673 0.02694 1.71429
-0.15429 0.02694 1.71429
-0.15184 0.02694 1.71429
-0.14939 0.02694 1.71429
-0.14694 0.02694 1.71429
-0.14449 0.02694 1.71429
-0.14204 0.02694 1.71429
-0.13959 0.02694 1.71429
-0.13714 0.02694 1.71429
-0.13469 0.02694 1.71429
-0.18094 0.03686 2.34555
-0.17790 0.03692 2.34965
-0.17424 0.03686 2.34555
-0.17089 0.03686 2.34555
-0.16754 0.03686 2.34555
-0.16419 0.03686 2.34555
-0.16056 0.03679 2.34146
-0.15667 0.03667 2.33333
-0.15333 0.03667 2.33333
-0.14974 0.03660 2.32929
-0.14616 0.03654 2.32526
-0.14284 0.03654 2.32526
-0.13952 0.03654 2.32526
-0.13596 0.03648 2.32124
-0.13264 0.03648 2.32124
-0.12933 0.03648 2.32124
-0.12579 0.03641 2.31724
-0.12248 0.03641 2.31724
-0.11897 0.03635 2.31325
-0.11566 0.03635 2.31325
-0.11236 0.03635 2.31325
-0.10905 0.03635 2.31325
-0.10557 0.03629 2.30928
-0.10209 0.03623 2.30532
-0.09880 0.03623 2.30532
-0.09502 0.03604 2.29352
-0.09158 0.03598 2.28961
-0.08846 0.03604 2.29352
-0.08519 0.03604 2.29352
-0.08191 0.03604 2.29352
-0.07863 0.03604 2.29352
-0.07536 0.03604 2.29352
-0.07196 0.03598 2.28961
-0.06857 0.03592 2.28571
-0.06520 0.03586 2.28183
-0.06173 0.03574 2.27411
-0.05848 0.03574 2.27411
-0.05514 0.03568 2.27027
-0.05189 0.03568 2.27027
-0.04865 0.03568 2.27027
-0.04541 0.03568 2.27027
-0.04216 0.03568 2.27027
-0.03892 0.03568 2.27027
-0.03568 0.03568 2.27027
-0.03243 0.03568 2.27027
-0.02919 0.03568 2.27027
-0.02595 0.03568 2.27027
-0.02270 0.03568 2.27027
-0.01946 0.03568 2.27027
-0.01622 0.03568 2.27027
-0.01297 0.03568 2.27027
-0.00973 0.03568 2.27027
-0.00649 0.03568 2.27027
-0.00324 0.03568 2.27027
0.00000 0.03562 2.26644
0.00324 0.03562 2.26644
0.00648 0.03562 2.26644
0.00971 0.03562 2.26644
0.01295 0.03562 2.26644
0.01619 0.03562 2.26644
0.01943 0.03562 2.26644
0.02266 0.03562 2.26644
0.02590 0.03562 2.26644
0.02914 0.03562 2.26644
0.03243 0.03568 2.27027
0.03568 0.03568 2.27027
0.03892 0.03568 2.27027
0.04216 0.03568 2.27027
0.04533 0.03562 2.26644
0.04857 0.03562 2.26644
0.05180 0.03562 2.26644
0.05504 0.03562 2.26644
0.05838 0.03568 2.27027
0.06162 0.03568 2.27027
0.06486 0.03568 2.27027
0.06811 0.03568 2.27027
0.07123 0.03562 2.26644
0.07447 0.03562 2.26644
0.07771 0.03562 2.26644
0.08094 0.03562 2.26644
0.08418 0.03562 2.26644
0.08742 0.03562 2.26644
0.09066 0.03562 2.26644
0.09390 0.03562 2.26644
0.09713 0.03562 2.26644
0.10037 0.03562 2.26644
0.10361 0.03562 2.26644
0.10685 0.03562 2.26644
0.11008 0.03562 2.26644
0.11332 0.03562 2.26644
0.11656 0.03562 2.26644
0.11980 0.03562 2.26644
0.12304 0.03562 2.26644
0.12627 0.03562 2.26644
0.12951 0.03562 2.26644
0.13275 0.03562 2.26644
0.13599 0.03562 2.26644
0.13922 0.03562 2.26644
0.14270 0.03568 2.27027
0.14595 0.03568 2.27027
0.14919 0.03568 2.27027
0.15243 0.03568 2.27027
0.15568 0.03568 2.27027
0.15892 0.03568 2.27027
0.16216 0.03568 2.27027
0.16569 0.03574 2.27411
0.16893 0.03574 2.27411
0.17247 0.03580 2.27797
0.17603 0.03586 2.28183
0.17959 0.03592 2.28571
0.18317 0.03598 2.28961
0.18772 0.03623 2.30532
0.19134 0.03629 2.30928
0.19497 0.03635 2.31325
0.19828 0.03635 2.31325
0.20158 0.03635 2.31325
0.20489 0.03635 2.31325
0.20855 0.03641 2.31724
0.21186 0.03641 2.31724
0.21554 0.03648 2.32124
0.21962 0.03660 2.32929
0.22333 0.03667 2.33333
0.22667 0.03667 2.33333
0.23000 0.03667 2.33333
0.23415 0.03679 2.34146
0.23791 0.03686 2.34555
0.24253 0.03705 2.35789
0.24633 0.03712 2.36204
0.25058 0.03725 2.37037
0.25397 0.03725 2.37037
0.25735 0.03725 2.37037
0.26074 0.03725 2.37037
0.26413 0.03725 2.37037
0.26751 0.03725 2.37037
0.23774 0.02843 1.80888
0.23968 0.02835 1.80403
0.24193 0.02831 1.80161
0.24450 0.02831 1.80161
0.24774 0.02839 1.80645
0.25066 0.02843 1.80888
0.25324 0.02843 1.80888
0.25652 0.02850 1.81377
0.25911 0.02850 1.81377
0.26205 0.02854 1.81622
0.26501 0.02858 1.81867
0.26724 0.02854 1.81622
0.26947 0.02850 1.81377
0.27060 0.02835 1.80403
0.27282 0.02831 1.80161
0.27539 0.02831 1.80161
0.27796 0.02831 1.80161
0.28054 0.02831 1.80161
0.28311 0.02831 1.80161
0.28800 0.02854 1.81622
0.29178 0.02866 1.82361
0.29478 0.02870 1.82609
0.29699 0.02866 1.82361
0.29919 0.02862 1.82114
0.30179 0.02862 1.82114
0.30439 0.02862 1.82114
0.35180 0.03280 2.08696
0.35478 0.03280 2.08696
0.35776 0.03280 2.08696
0.36075 0.03280 2.08696
0.36373 0.03280 2.08696
0.36671 0.03280 2.08696
0.36969 0.03280 2.08696
0.37325 0.03285 2.09020
0.37624 0.03285 2.09020
0.37922 0.03285 2.09020
0.38280 0.03290 2.09346
-0.45176 0.02824 1.64706
-0.44941 0.02824 1.64706
-0.44706 0.02824 1.64706
-0.44471 0.02824 1.64706
-0.44235 0.02824 1.64706
-0.44000 0.02824 1.64706
-0.43765 0.02824 1.64706
-0.43529 0.02824 1.64706
-0.43347 0.02827 1.64908
-0.43165 0.02830 1.65111
-0.42982 0.02834 1.65314
-0.59102 0.03918 2.28571
-0.59077 0.03938 2.29744
-0.58950 0.03952 2.30532
-0.58421 0.03938 2.29744
-0.57894 0.03925 2.28961
-0.57372 0.03912 2.28183
-0.56853 0.03898 2.27411
-0.56528 0.03898 2.27411
-0.56742 0.03959 2.30928
-0.52280 0.03669 2.14013
-0.51321 0.03623 2.11321
-0.50779 0.03606 2.10329
-0.50321 0.03594 2.09672
-0.49866 0.03583 2.09020
-0.49109 0.03550 2.07088
-0.48440 0.03523 2.05505
-0.48000 0.03512 2.04878
-0.47707 0.03512 2.04878
-0.47415 0.03512 2.04878
-0.47122 0.03512 2.04878
-0.46972 0.03523 2.05505
-0.46750 0.03528 2.05819
-0.46599 0.03539 2.06452
-0.39706 0.03135 1.82857
-0.39391 0.03130 1.82609
-0.39130 0.03130 1.82609
-0.38870 0.03130 1.82609
-0.38609 0.03130 1.82609
-0.38348 0.03130 1.82609
-0.38087 0.03130 1.82609
-0.37775 0.03126 1.82361
-0.37463 0.03122 1.82114
-0.37153 0.03118 1.81867
-0.36843 0.03114 1.81622
-0.36584 0.03114 1.81622
-0.36324 0.03114 1.81622
-0.36065 0.03114 1.81622
-0.35805 0.03114 1.81622
-0.35546 0.03114 1.81622
-0.35334 0.03118 1.81867
-0.35074 0.03118 1.81867
-0.34862 0.03122 1.82114
-0.34649 0.03126 1.82361
-0.34435 0.03130 1.82609
-0.34174 0.03130 1.82609
-0.33959 0.03135 1.82857
-0.33698 0.03135 1.82857
-0.33482 0.03139 1.83106
-0.33221 0.03139 1.83106
-0.32959 0.03139 1.83106
-0.32742 0.03143 1.83356
-0.33021 0.03196 1.86408
-0.32846 0.03204 1.86926
-0.33038 0.03250 1.89563
-0.35253 0.03496 2.03945
-0.35122 0.03512 2.04878
-0.34829 0.03512 2.04878
-0.34589 0.03518 2.05191
-0.34560 0.03545 2.06769
-0.34638 0.03583 2.09020
-0.34446 0.03594 2.09672
-0.34200 0.03600 2.10000
-0.33953 0.03606 2.10329
-0.33705 0.03611 2.10658
-0.33562 0.03628 2.11654
-0.37765 0.04235 2.47059
-0.37139 0.04204 2.45255
-0.36856 0.04212 2.45704
-0.36505 0.04212 2.45704
-0.36220 0.04220 2.46154
-0.35868 0.04220 2.46154
-0.35516 0.04220 2.46154
-0.35165 0.04220 2.46154
-0.34813 0.04220 2.46154
-0.34462 0.04220 2.46154
-0.25236 0.03122 1.82114
-0.24976 0.03122 1.82114
-0.19349 0.02977 1.73643
-0.19076 0.02973 1.73419
-0.18756 0.02961 1.72751
-0.18438 0.02950 1.72087
-0.18169 0.02946 1.71867
-0.17923 0.02946 1.71867
-0.17655 0.02943 1.71648
-0.17410 0.02943 1.71648
-0.17143 0.02939 1.71429
-0.16898 0.02939 1.71429
-0.16653 0.02939 1.71429
-0.16408 0.02939 1.71429
-0.16163 0.02939 1.71429
-0.15918 0.02939 1.71429
-0.15673 0.02939 1.71429
-0.15429 0.02939 1.71429
-0.15184 0.02939 1.71429
-0.14939 0.02939 1.71429
-0.14694 0.02939 1.71429
-0.14449 0.02939 1.71429
-0.14204 0.02939 1.71429
-0.13959 0.02939 1.71429
-0.13714 0.02939 1.71429
-0.13469 0.02939 1.71429
-0.18094 0.04021 2.34555
-0.17759 0.04021 2.34555
-0.17424 0.04021 2.34555
-0.17059 0.04014 2.34146
-0.16725 0.04014 2.34146
-0.16390 0.04014 2.34146
-0.16028 0.04007 2.33739
-0.15667 0.04000 2.33333
-0.15333 0.04000 2.33333
-0.14974 0.03993 2.32929
-0.14616 0.03986 2.32526
-0.14284 0.03986 2.32526
-0.13952 0.03986 2.32526
-0.13596 0.03979 2.32124
-0.13264 0.03979 2.32124
-0.12933 0.03979 2.32124
-0.12579 0.03972 2.31724
-0.12248 0.03972 2.31724
-0.11897 0.03966 2.31325
-0.11566 0.03966 2.31325
-0.11236 0.03966 2.31325
-0.10887 0.03959 2.30928
-0.10557 0.03959 2.30928
-0.10209 0.03952 2.30532
-0.09829 0.03932 2.29352
-0.09486 0.03925 2.28961
-0.09158 0.03925 2.28961
-0.08831 0.03925 2.28961
-0.08504 0.03925 2.28961
-0.08191 0.03932 2.29352
-0.07850 0.03925 2.28961
-0.07510 0.03918 2.28571
-0.07171 0.03912 2.28183
-0.06834 0.03905 2.27797
-0.06497 0.03898 2.27411
-0.06173 0.03898 2.27411
-0.05838 0.03892 2.27027
-0.05514 0.03892 2.27027
-0.05189 0.03892 2.27027
-0.04865 0.03892 2.27027
-0.04541 0.03892 2.27027
-0.04209 0.03885 2.26644
-0.03885 0.03885 2.26644
-0.03562 0.03885 2.26644
-0.03238 0.03885 2.26644
-0.02914 0.03885 2.26644
-0.02595 0.03892 2.27027
-0.02270 0.03892 2.27027
-0.01946 0.03892 2.27027
-0.01622 0.03892 2.27027
-0.01297 0.03892 2.27027
-0.00973 0.03892 2.27027
-0.00649 0.03892 2.27027
-0.00324 0.03885 2.26644
0.00000 0.03885 2.26644
0.00324 0.03885 2.26644
0.00648 0.03885 2.26644
0.00971 0.03885 2.26644
0.01295 0.03885 2.26644
0.01619 0.03885 2.26644
0.01943 0.03885 2.26644
0.02266 0.03885 2.26644
0.02590 0.03885 2.26644
0.02914 0.03885 2.26644
0.03238 0.03885 2.26644
0.03568 0.03892 2.27027
0.03885 0.03885 2.26644
0.04209 0.03885 2.26644
0.04533 0.03885 2.26644
0.04857 0.03885 2.26644
0.05180 0.03885 2.26644
0.05504 0.03885 2.26644
0.05828 0.03885 2.26644
0.06152 0.03885 2.26644
0.06476 0.03885 2.26644
0.06799 0.03885 2.26644
0.07123 0.03885 2.26644
0.07447 0.03885 2.26644
0.07771 0.03885 2.26644
0.08094 0.03885 2.26644
0.08418 0.03885 2.26644
0.08742 0.03885 2.26644
0.09066 0.03885 2.26644
0.09390 0.03885 2.26644
0.09713 0.03885 2.26644
0.10037 0.03885 2.26644
0.10361 0.03885 2.26644
0.10685 0.03885 2.26644
0.11008 0.03885 2.26644
0.11332 0.03885 2.26644
0.11656 0.03885 2.26644
0.11980 0.03885 2.26644
0.12304 0.03885 2.26644
0.12627 0.03885 2.26644
0.12951 0.03885 2.26644
0.13275 0.03885 2.26644
0.13599 0.03885 2.26644
0.13922 0.03885 2.26644
0.14246 0.03885 2.26644
0.14595 0.03892 2.27027
0.14919 0.03892 2.27027
0.15243 0.03892 2.27027
0.15568 0.03892 2.27027
0.15892 0.03892 2.27027
0.16216 0.03892 2.27027
0.16541 0.03892 2.27027
0.16893 0.03898 2.27411
0.17247 0.03905 2.27797
0.17573 0.03905 2.27797
0.17929 0.03912 2.28183
0.18317 0.03925 2.28961
0.18772 0.03952 2.30532
0.19101 0.03952 2.30532
0.19464 0.03959 2.30928
0.19828 0.03966 2.31325
0.20158 0.03966 2.31325
0.20489 0.03966 2.31325
0.20819 0.03966 2.31325
0.21186 0.03972 2.31724
0.21517 0.03972 2.31724
0.21924 0.03986 2.32526
0.22295 0.03993 2.32929
0.22667 0.04000 2.33333
0.23000 0.04000 2.33333
0.23374 0.04007 2.33739
0.23749 0.04014 2.34146
0.24210 0.04035 2.35377
0.24589 0.04042 2.35789
0.25014 0.04056 2.36620
0.25397 0.04063 2.37037
0.25735 0.04063 2.37037
0.26074 0.04063 2.37037
0.26413 0.04063 2.37037
0.26751 0.04063 2.37037
0.23579 0.03109 1.81377
0.23710 0.03093 1.80403
0.23968 0.03093 1.80403
0.24226 0.03093 1.80403
0.24483 0.03093 1.80403
0.24774 0.03097 1.80645
0.25066 0.03101 1.80888
0.25358 0.03105 1.81132
0.25652 0.03109 1.81377
0.25911 0.03109 1.81377
0.26241 0.03118 1.81867
0.26501 0.03118 1.81867
0.26760 0.03118 1.81867
0.26947 0.03109 1.81377
0.27170 0.03105 1.81132
0.27282 0.03088 1.80161
0.27539 0.03088 1.80161
0.27796 0.03088 1.80161
0.28054 0.03088 1.80161
0.28311 0.03088 1.80161
0.28800 0.03114 1.81622
0.29178 0.03126 1.82361
0.29478 0.03130 1.82609
0.29739 0.03130 1.82609
0.29959 0.03126 1.82361
0.30179 0.03122 1.82114
0.30439 0.03122 1.82114
0.35180 0.03578 2.08696
0.35478 0.03578 2.08696
0.35776 0.03578 2.08696
0.36075 0.03578 2.08696
0.36429 0.03583 2.09020
0.36728 0.03583 2.09020
0.37026 0.03583 2.09020
0.37325 0.03583 2.09020
0.37624 0.03583 2.09020
0.37981 0.03589 2.09346
0.38340 0.03594 2.09672
-0.45176 0.03059 1.64706
-0.44941 0.03059 1.64706
-0.44706 0.03059 1.64706
-0.44471 0.03059 1.64706
-0.44235 0.03059 1.64706
-0.44000 0.03059 1.64706
-0.43765 0.03059 1.64706
-0.43529 0.03059 1.64706
-0.43347 0.03063 1.64908
-0.43165 0.03066 1.65111
-0.42982 0.03070 1.65314
-0.42745 0.03070 1.65314
-0.58976 0.04259 2.29352
-0.58749 0.04267 2.29744
-0.58621 0.04281 2.30532
-0.58292 0.04281 2.30532
-0.57567 0.04252 2.28961
-0.57240 0.04252 2.28961
-0.57135 0.04318 2.32526
-0.51785 0.03937 2.11987
-0.51080 0.03906 2.10329
-0.50700 0.03900 2.10000
-0.50165 0.03882 2.09020
-0.49712 0.03870 2.08372
-0.49034 0.03840 2.06769
-0.48293 0.03805 2.04878
-0.48000 0.03805 2.04878
-0.47707 0.03805 2.04878
-0.47415 0.03805 2.04878
-0.47194 0.03811 2.05191
-0.47189 0.03834 2.06452
-0.46966 0.03840 2.06769
-0.47106 0.03876 2.08696
-0.39652 0.03391 1.82609
-0.39391 0.03391 1.82609
-0.39130 0.03391 1.82609
-0.38870 0.03391 1.82609
-0.38609 0.03391 1.82609
-0.38348 0.03391 1.82609
-0.38087 0.03391 1.82609
-0.37775 0.03387 1.82361
-0.37463 0.03382 1.82114
-0.37153 0.03378 1.81867
-0.36843 0.03373 1.81622
-0.36584 0.03373 1.81622
-0.36324 0.03373 1.81622
-0.36065 0.03373 1.81622
-0.35805 0.03373 1.81622
-0.35594 0.03378 1.81867
-0.35334 0.03378 1.81867
-0.35122 0.03382 1.82114
-0.34909 0.03387 1.82361
-0.34696 0.03391 1.82609
-0.34435 0.03391 1.82609
-0.34220 0.03396 1.82857
-0.33959 0.03396 1.82857
-0.33698 0.03396 1.82857
-0.33482 0.03401 1.83106
-0.33221 0.03401 1.83106
-0.32959 0.03401 1.83106
-0.32742 0.03405 1.83356
-0.32975 0.03457 1.86150
-0.32800 0.03467 1.86667
-0.33038 0.03520 1.89563
-0.35415 0.03805 2.04878
-0.35176 0.03811 2.05191
-0.34882 0.03811 2.05191
-0.34642 0.03817 2.05505
-0.34560 0.03840 2.06769
-0.34746 0.03894 2.09672
-0.34500 0.03900 2.10000
-0.34254 0.03906 2.10329
-0.34006 0.03912 2.10658
-0.33758 0.03918 2.10989
-0.33562 0.03931 2.11654
-0.33260 0.03931 2.11654
-0.37489 0.04555 2.45255
-0.37004 0.04538 2.44364
-0.36655 0.04538 2.44364
-0.36372 0.04546 2.44809
-0.36022 0.04546 2.44809
-0.35737 0.04555 2.45255
-0.35387 0.04555 2.45255
-0.35036 0.04555 2.45255
-0.34686 0.04555 2.45255
-0.25496 0.03382 1.82114
-0.25202 0.03378 1.81867
-0.24976 0.03382 1.82114
-0.24715 0.03382 1.82114
-0.19622 0.03229 1.73868
-0.19349 0.03225 1.73643
-0.19076 0.03221 1.73419
-0.18732 0.03204 1.72529
-0.18414 0.03192 1.71867
-0.18169 0.03192 1.71867
-0.17900 0.03188 1.71648
-0.17655 0.03188 1.71648
-0.17388 0.03184 1.71429
-0.17143 0.03184 1.71429
-0.16898 0.03184 1.71429
-0.16653 0.03184 1.71429
-0.16408 0.03184 1.71429
-0.16163 0.03184 1.71429
-0.15918 0.03184 1.71429
-0.15673 0.03184 1.71429
-0.15429 0.03184 1.71429
-0.15184 0.03184 1.71429
-0.14939 0.03184 1.71429
-0.14694 0.03184 1.71429
-0.14449 0.03184 1.71429
-0.14204 0.03184 1.71429
-0.13959 0.03184 1.71429
-0.13714 0.03184 1.71429
-0.13469 0.03184 1.71429
-0.18063 0.04348 2.34146
-0.17728 0.04348 2.34146
-0.17394 0.04348 2.34146
-0.17030 0.04341 2.33739
-0.16696 0.04341 2.33739
-0.16362 0.04341 2.33739
-0.16000 0.04333 2.33333
-0.15667 0.04333 2.33333
-0.15307 0.04326 2.32929
-0.14948 0.04318 2.32526
-0.14616 0.04318 2.32526
-0.14284 0.04318 2.32526
-0.13927 0.04311 2.32124
-0.13596 0.04311 2.32124
-0.13264 0.04311 2.32124
-0.12910 0.04303 2.31724
-0.12579 0.04303 2.31724
-0.12227 0.04296 2.31325
-0.11897 0.04296 2.31325
-0.11566 0.04296 2.31325
-0.11216 0.04289 2.30928
-0.10887 0.04289 2.30928
-0.10539 0.04281 2.30532
-0.10157 0.04259 2.29352
-0.09813 0.04252 2.28961
-0.09469 0.04245 2.28571
-0.09127 0.04238 2.28183
-0.08801 0.04238 2.28183
-0.08490 0.04245 2.28571
